# .PCD v0.7 - Point Cloud Data file format
VERSION 0.7
FIELDS x y z intensity
SIZE 4 4 4 4
TYPE F F F F
COUNT 1 1 1 1
WIDTH 1155
HEIGHT 1
VIEWPOINT 0 0 0 1 0 0 0
POINTS 1155
DATA ascii
3.9726486 2.5866168 -1.7718643 0.24705882
3.0630605 2.8220215 -0.69795877 0.15686275
3.8424537 2.9234159 -1.7595469 0.29803923
3.7736301 3.1750026 -1.7606138 0.36470589
3.4042158 2.4663951 -1.7672523 0.40000001
3.3256924 2.6595938 -1.7597971 0.38431373
2.8793578 2.8017468 -1.3505063 0.098039217
3.1783371 2.9527011 -1.7491049 0.3019608
3.1821346 3.2595365 -1.7796854 0.10588235
4.2875433 2.8101184 -1.303459 0.047058824
4.6913376 2.635463 -1.7554131 0.26666668
4.4531279 2.7833633 -1.6445072 0.35294119
3.8549211 2.821238 -1.4540296 0.094117649
3.522049 2.8171439 -1.3148398 0.05882353
2.7370172 2.8648646 -0.83301491 0.05882353
3.0321155 2.8124058 -1.1481231 0.023529412
4.3423481 2.8508253 -0.75640994 0.078431375
7.0659065 3.9672542 -1.784968 0.2
4.6031718 2.8837152 -1.0954599 0.23137255
3.5329359 2.7014413 -0.58937949 0.29803923
3.8466899 3.1874239 -0.63346642 0.06666667
3.5554838 2.8316989 -0.81229001 0.043137256
12.938454 8.3510246 -1.7388175 0.48235294
13.44265 9.3022861 -1.7688906 0.54901963
13.836308 10.478398 -1.7886027 0.60000002
14.465499 11.801805 -1.8354928 0.33725491
10.401233 7.6711216 -1.7396646 0.5411765
10.680233 8.4471397 -1.7696224 0.3764706
15.068533 13.301464 -1.8649744 0.3882353
15.559795 14.727519 -1.889578 0.56470591
17.051052 11.000873 -0.90690058 0.39215687
17.05238 11.880613 -0.82574582 0.32549021
18.588335 11.630183 -1.7788786 0.49411765
16.770962 11.352408 -1.5046149 0.29411766
30.675209 23.115822 -1.4417615 0.63137257
44.061584 35.942856 -1.9381121 0.93333334
20.926497 15.38365 -1.8461896 0.44313726
22.019615 17.463951 -1.87705 0.65882355
23.88776 20.458555 -1.911732 0.54901963
25.144012 23.193043 -1.9118145 0.77254903
18.7948 11.748445 -0.20750237 0.59607846
4.0014791 2.3461275 -1.7798897 0.26274511
3.9745944 2.5701084 -1.7688315 0.24313726
3.0951352 2.8333461 -0.7043736 0.15686275
3.8530669 2.9124093 -1.7602917 0.29411766
3.7793083 3.1595256 -1.7584348 0.34117648
3.4074783 2.4525318 -1.7647229 0.3882353
3.3312316 2.6468856 -1.7581505 0.47058824
2.9219487 2.8248177 -1.368239 0.18431373
3.1943476 2.9488766 -1.7531538 0.25098041
3.1885717 3.2455931 -1.7773387 0.10588235
4.3059602 2.8029897 -1.3067611 0.43137255
4.6995196 2.6206028 -1.7554148 0.27450982
4.477809 2.7793634 -1.6510445 0.19215687
3.8914058 2.8287728 -1.4656165 0.094117649
3.5589581 2.8287001 -1.3267049 0.062745102
2.7540483 2.8647711 -0.83589554 0.05882353
3.0620477 2.822037 -1.1572114 0.023529412
8.7035503 5.10885 -1.683381 0.3019608
4.3742762 2.8524022 -0.76122224 0.078431375
7.0800123 3.9459527 -1.785436 0.2
4.5775928 2.8474617 -1.0860623 0.25098041
3.5523918 2.6984322 -0.59167314 0.20784314
3.8416066 3.16272 -0.63037789 0.06666667
12.937816 8.2932768 -1.7347903 0.59607846
13.45706 9.2498713 -1.7667291 0.52941179
13.877026 10.440842 -1.7897595 0.42745098
14.488558 11.745078 -1.8335369 0.34117648
10.423637 7.6372509 -1.7393711 0.36078432
10.702028 8.4099007 -1.7687624 0.37254903
15.084745 13.231887 -1.8614849 0.3882353
15.58713 14.66088 -1.8870492 0.56470591
17.078754 10.942938 -0.90647006 0.39607844
17.015762 11.775772 -0.82127827 0.51764709
18.609467 11.562314 -1.7772595 0.49411765
16.773489 11.277464 -1.5012413 0.29411766
30.318846 22.698732 -1.4187627 0.62352943
44.169426 35.800514 -1.9379178 0.93333334
20.958536 15.306171 -1.8446227 0.44313726
22.038322 17.366335 -1.8736556 0.5529412
29.786926 25.99106 -1.0550517 0.64705884
44.771397 42.163609 -1.4567112 1
23.921473 20.357708 -1.9090569 0.54901963
22.762703 20.861279 -1.7050208 1
18.799288 11.66936 -0.20680115 0.70980394
4.0103626 2.3343265 -1.7806616 0.26666668
3.9888566 2.5616992 -1.7718679 0.26274511
3.1112773 2.8301294 -0.70637965 0.15686275
3.8621571 2.9002628 -1.7602938 0.30588236
3.7834983 3.1428487 -1.7555285 0.25098041
3.4136462 2.4407558 -1.763881 0.41960785
3.3381417 2.6353121 -1.757328 0.34509805
2.9198966 2.8053422 -1.3625673 0.14509805
3.2035964 2.9388406 -1.7531559 0.29411766
3.2026472 3.239562 -1.7796904 0.10588235
5.6689806 3.2750707 -1.7621522 0.14901961
4.3034859 2.7821059 -1.3029132 0.23529412
4.7043443 2.603924 -1.754072 0.25490198
4.5169287 2.7842085 -1.6634635 0.21176471
3.9681122 2.8645003 -1.4939365 0.098039217
3.5900457 2.8353107 -1.3360724 0.062745102
2.7630832 2.8561466 -0.83589768 0.05882353
3.0892415 2.8289595 -1.1650881 0.023529412
8.7365398 5.0913801 -1.6869586 0.39215687
4.3766422 2.8343623 -0.75984991 0.078431375
7.1110983 3.9339495 -1.7905536 0.2
4.5088902 2.7845509 -1.0650271 0.25882354
3.5734501 2.6964974 -0.59429419 0.18431373
12.950338 8.2440968 -1.7327802 0.59215689
13.474548 9.1997004 -1.7650497 0.53725493
13.904909 10.393655 -1.7890797 0.45882353
14.505224 11.683331 -1.830707 0.34117648
10.441133 7.5998383 -1.7381783 0.39607844
10.720585 8.3701668 -1.767324 0.36078432
15.114163 13.174067 -1.8598489 0.39215687
15.633056 14.611894 -1.8870621 0.56470591
17.129879 10.899888 -0.907579 0.39215687
16.977011 11.670146 -0.81671101 0.69411767
18.620186 11.488181 -1.7745544 0.49019608
16.777367 11.203722 -1.4980366 0.29019609
29.964989 22.287697 -1.3960212 0.6156863
44.157146 35.561359 -1.9319168 1
20.972527 15.215817 -1.8413178 0.44313726
22.06916 17.278616 -1.8714468 0.54509807
29.872961 25.901388 -1.0552664 1
44.992268 42.106159 -1.4600489 1
23.933437 20.238861 -1.9044967 0.54509807
18.837534 11.611294 -0.2068485 0.60392159
4.0208216 2.3233984 -1.7822038 0.26666668
3.9922481 2.5461864 -1.7695937 0.29019609
3.1274297 2.8268392 -0.70838571 0.15686275
3.8652303 2.8836927 -1.7573248 0.24313726
3.7847614 3.1237917 -1.7511678 0.34509805
3.4197741 2.4289653 -1.7630389 0.32941177
3.3478587 2.6259942 -1.7581542 0.36862746
2.9395442 2.8063519 -1.3682431 0.098039217
3.1992395 2.9165361 -1.7450647 0.30588236
3.199986 3.2163687 -1.7718624 0.10588235
5.649209 3.2402115 -1.7519948 0.1882353
4.3604922 2.7999818 -1.3194152 0.56078434
4.7091122 2.5872405 -1.7527292 0.26666668
4.742363 2.9038863 -1.7516915 0.30980393
3.977006 2.8519368 -1.4939387 0.098039217
3.6256659 2.8452971 -1.3473133 0.062745102
2.7720912 2.8474939 -0.83589983 0.05882353
3.1037481 2.8243058 -1.1675131 0.023529412
7.0632277 4.0907559 -1.3324655 0.27450982
4.4168534 2.8410649 -0.76638013 0.078431375
7.1046114 3.9013469 -1.785442 0.2
3.8045623 2.8480558 -0.640131 0.15686275
3.6547024 2.9675059 -0.58834493 0.062745102
3.6448262 2.847995 -0.82933229 0.047058824
12.983904 8.1797953 -1.7320355 0.59607846
13.511123 9.1316376 -1.7640988 0.52941179
13.929662 10.310372 -1.7856508 0.64705884
14.539848 11.598785 -1.8278837 0.34117648
10.479972 7.5528579 -1.7387886 0.40392157
10.738004 8.3026161 -1.7632885 0.52941179
15.154885 13.084631 -1.8569844 0.39607844
15.708947 14.5449 -1.8880605 0.56470591
17.201309 10.831725 -0.90891451 0.43137255
17.008694 11.574263 -0.81533468 0.51372552
18.653589 11.387906 -1.7723988 0.49019608
16.809965 11.111417 -1.4960229 0.29019609
29.545008 21.760353 -1.3680518 0.60784316
44.164818 35.22583 -1.9242764 1
21.0439 15.116883 -1.8413397 0.44313726
22.128159 17.157373 -1.8693961 0.54901963
29.927933 25.703281 -1.052493 0.89019608
24.025471 20.123425 -1.9042563 0.48627451
25.372139 22.892616 -1.9097835 0.65490198
18.880049 11.515122 -0.20660321 0.71372551
55.732067 39.866245 -0.27406877 1
4.0235524 2.2997327 -1.7783551 0.26666668
4.0104504 2.5314083 -1.7726316 0.24705882
3.1553473 2.8250012 -0.71239734 0.15686275
3.8757176 2.8632195 -1.755843 0.3019608
3.8022947 3.1082914 -1.7526262 0.25098041
3.4341006 2.414855 -1.7647294 0.46666667
3.3631008 2.6125154 -1.7598063 0.38431373
2.9704502 2.8089561 -1.3774668 0.098039217
3.2279434 2.91484 -1.7539713 0.25882354
3.2229369 3.2091753 -1.776565 0.10588235
5.6610131 3.2116477 -1.7508702 0.32549021
4.3720069 2.778388 -1.3188689 0.23137255
4.7161565 2.5622039 -1.7507155 0.26274511
4.7768731 2.8942785 -1.7601911 0.23921569
3.9949305 2.8362775 -1.4958731 0.098039217
3.6539352 2.8399503 -1.3535607 0.062745102
2.7895963 2.8386562 -0.83734268 0.05882353
3.1312065 2.8222599 -1.1735742 0.023529412
7.227551 4.1401825 -1.3628466 1
4.4665828 2.8437564 -0.77394283 0.078431375
7.1331506 3.8733151 -1.7882371 0.2
3.9710667 2.9409204 -0.67156446 0.15686275
12.994325 8.1295214 -1.729773 0.59215689
13.528182 9.0813789 -1.7624191 0.5411765
13.973123 10.27477 -1.7872665 0.44705883
14.555934 11.537028 -1.8250538 0.34117648
10.489123 7.5095816 -1.7360965 0.38039216
10.75618 8.262826 -1.7618499 0.35294119
15.176216 13.02022 -1.8543183 0.39215687
15.741365 14.483385 -1.8863137 0.56470591
17.269133 10.798697 -0.91112339 0.98039216
17.008581 11.49613 -0.81315529 0.55686277
17.663618 10.710369 -1.6634431 0.4627451
16.848024 11.06079 -1.4963707 0.29019609
29.14381 21.324436 -1.3430752 0.59607846
44.142147 34.981434 -1.9178973 1
16.991108 12.139746 -1.4425114 0.35686275
22.150324 17.063457 -1.866446 0.55686277
30.052656 25.646791 -1.0543685 0.90588236
24.05632 20.021194 -1.9014461 0.48627451
24.072491 21.581423 -1.7953707 0.64705884
18.936649 11.468142 -0.20706218 0.58823532
4.0306859 2.2869475 -1.7783567 0.28235295
4.0246358 2.5228164 -1.775668 0.26274511
3.1671207 2.8176429 -0.71320093 0.15686275
3.8756356 2.8444774 -1.7513884 0.22352941
3.814909 3.098691 -1.7540828 0.27450982
3.4401405 2.4030094 -1.7638874 0.38039216
3.3684585 2.599731 -1.7581594 0.39215687
2.9874454 2.8071849 -1.3817241 0.098039217
3.2466543 2.9131899 -1.7596387 0.26274511
3.2317533 3.1977701 -1.7757844 0.10588235
5.6844234 3.2012813 -1.7553879 0.33725491
4.4761715 2.8256433 -1.3513212 0.3764706
4.7407508 2.5560529 -1.7574406 0.27450982
4.8004265 2.8880537 -1.766075 0.26666668
4.0068483 2.8257768 -1.4971623 0.098039217
3.6718016 2.8354926 -1.357309 0.062745102
2.8201859 2.8522253 -0.84502083 0.05882353
3.1585829 2.8287601 -1.181451 0.023529412
7.0763073 4.0245957 -1.3285432 1
4.5119529 2.8531139 -0.7815038 0.078431375
7.1435437 3.8499448 -1.787775 0.2
3.9945903 2.9386804 -0.6745131 0.15686275
13.014672 8.0855179 -1.7290233 0.60784316
13.543407 9.0300093 -1.7604984 0.5411765
14.000444 10.227333 -1.7865865 0.47058824
14.585794 11.48636 -1.8241897 0.34117648
10.493267 7.4629073 -1.732505 0.51372552
10.782052 8.2290211 -1.7618568 0.36078432
15.203341 12.960957 -1.852476 0.40000001
15.789663 14.436601 -1.8867173 0.56470591
17.25876 10.717089 -0.90827292 0.66666669
17.021399 11.427036 -0.81177193 0.5411765
17.659546 10.632321 -1.65947 0.4627451
16.862638 10.994787 -1.49435 0.29019609
28.848488 20.969906 -1.3238531 0.63137257
44.088573 34.714073 -1.9100852 1
16.86953 11.973781 -1.4270358 0.35294119
22.175274 16.972008 -1.8637922 0.55686277
24.08676 19.91898 -1.8986359 0.48627451
25.384384 22.615976 -1.8989253 0.70980394
18.953695 11.397292 -0.20666009 0.69411767
54.805664 43.113495 2.4671693 1
4.0442553 2.2776973 -1.7814393 0.25490198
4.013814 2.4983459 -1.7665659 0.28627452
3.1936347 2.8230948 -0.71801257 0.15686275
3.9056041 2.8474109 -1.7617893 0.28235295
3.836158 3.0961051 -1.7599025 0.32941177
3.4476335 2.3921721 -1.7638891 0.3882353
3.3766398 2.5891817 -1.7581613 0.36862746
3.0085862 2.8091242 -1.3881094 0.098039217
3.23523 2.8848555 -1.7475008 0.25882354
3.2470353 3.1928518 -1.778919 0.10588235
5.699441 3.186168 -1.7570835 0.27843139
4.475286 2.805413 -1.3480233 0.41960785
4.7386818 2.5357955 -1.7534083 0.29019609
4.7932768 2.8632033 -1.7595417 0.25490198
4.0140624 2.8120205 -1.4965208 0.098039217
2.8468163 2.8614619 -0.85125977 0.05882353
3.1745758 2.8250809 -1.1844817 0.023529412
7.0614929 3.9869857 -1.3228285 1
7.136682 3.8174472 -1.7826633 0.2
4.0245538 2.9409077 -0.67877132 0.15686275
3.6458557 2.8938916 -0.58000726 0.05882353
13.062672 8.0302744 -1.7305477 0.48235294
13.579129 8.9616995 -1.7595471 0.53725493
14.019385 10.140393 -1.7824688 0.61960787
14.61618 11.399216 -1.8209292 0.33725491
10.544425 7.4247165 -1.7355137 0.39607844
10.793894 8.1578426 -1.7569538 0.5411765
15.241331 12.870061 -1.8494052 0.39215687
15.870679 14.374146 -1.8884974 0.56470591
17.433401 10.711622 -0.91631722 0.85490197
17.026827 11.314605 -0.80890238 0.67450982
17.711044 10.549994 -1.6596663 0.4627451
16.91913 10.918531 -1.4948732 0.29019609
28.471626 20.492121 -1.2987151 0.58431375
44.081417 34.37328 -1.9019905 1
16.754126 11.774387 -1.4104604 0.84705883
22.234215 16.851725 -1.8618891 0.5529412
24.143248 19.775126 -1.8954326 0.48235294
25.475637 22.482977 -1.8977195 0.69411767
19.022631 11.317029 -0.20701343 0.58431375
55.061646 42.896648 2.4693127 1
4.0515909 2.2566543 -1.7799016 0.25882354
4.0302658 2.482419 -1.7688451 0.23921569
3.2127836 2.8131127 -0.71961945 0.15686275
3.9038024 2.8181808 -1.7543651 0.25882354
3.844893 3.073313 -1.7569978 0.26274511
3.4603086 2.3768849 -1.7647357 0.37254903
3.3830843 2.5688548 -1.7548673 0.37254903
3.0383022 2.8099515 -1.3966237 0.098039217
3.2584231 2.8780162 -1.7531699 0.23921569
3.2568841 3.1723986 -1.7757909 0.10588235
5.6941609 3.1482165 -1.7503146 0.18431373
4.4916902 2.78636 -1.3491268 0.66274512
4.7538104 2.5150039 -1.7547562 0.27843139
4.8212495 2.8492601 -1.7654274 0.21568628
3.858393 2.7844815 -1.1766555 0.090196081
4.0365262 2.7993233 -1.5003859 0.098039217
3.7510822 2.8506052 -1.3810409 0.062745102
2.8562512 2.8439283 -0.84982413 0.05882353
3.1992989 2.8200495 -1.1893313 0.023529412
7.2159157 4.0290971 -1.3510655 1
4.6524639 2.8921721 -0.80590469 0.078431375
7.1407766 3.7765224 -1.7789489 0.2
4.0623584 2.9388254 -0.68368608 0.15686275
3.6502826 2.8693936 -0.57815635 0.34901962
13.058967 7.9716911 -1.7262679 0.61960787
13.600545 8.9146242 -1.7585905 0.52156866
14.06563 10.106692 -1.7845435 0.43529412
14.648708 11.350833 -1.8205018 0.33725491
10.562792 7.3881679 -1.7346203 0.40392157
10.824174 8.1274862 -1.7578279 0.33725491
15.258758 12.803045 -1.8463269 0.38431373
15.909803 14.318929 -1.887728 0.56470591
17.417425 10.626728 -0.91313654 1
17.037291 11.244526 -0.8074193 0.51764709
17.814327 10.535664 -1.6670964 0.46666667
16.943232 10.858913 -1.4938674 0.29019609
28.448051 20.339884 -1.2940944 0.76862746
44.100666 34.1661 -1.8977975 0.97647059
16.727108 11.677396 -1.4043077 0.59215689
22.266279 16.766224 -1.8599764 0.5529412
24.164963 19.666599 -1.8919486 0.48235294
25.778395 22.606895 -1.9169359 0.66666669
19.054623 11.255175 -0.20694806 0.72941178
55.06023 42.618301 2.4636953 1
4.0537138 2.2411523 -1.7775922 0.27450982
4.0521874 2.4785771 -1.7756747 0.27058825
3.2453482 2.8233755 -0.72603434 0.15686275
3.9292626 2.817646 -1.7625378 0.27450982
3.8458054 3.0542235 -1.752637 0.29803923
3.469223 2.3669903 -1.765581 0.40000001
3.3940582 2.5604773 -1.7565178 0.36470589
3.0914161 2.840426 -1.4193215 0.098039217
3.2591689 2.8605886 -1.748316 0.27058825
3.2695048 3.1647758 -1.7773594 0.10588235
5.7039843 3.1302881 -1.7503169 0.34901962
4.768311 2.5033867 -1.7574472 0.29803923
4.8171511 2.8263915 -1.760201 0.25098041
3.8592327 2.7667723 -1.1739513 0.090196081
4.0530543 2.7918308 -1.5036061 0.098039217
3.7569997 2.8365207 -1.3797944 0.062745102
2.8802631 2.8501534 -0.85510361 0.05882353
3.2282882 2.8273735 -1.197814 0.023529412
7.0409412 3.9030261 -1.312116 1
4.6765494 2.8869724 -0.80899912 0.078431375
7.1681046 3.7621157 -1.7831364 0.2
4.0617981 2.919136 -0.68172383 0.15686275
3.670135 2.8665993 -0.58032221 0.33333334
13.088969 7.9336772 -1.727031 0.48627451
13.61515 8.8631706 -1.7566696 0.50980395
14.090766 10.057868 -1.7836336 0.49411765
14.666928 11.291454 -1.8181084 0.34117648
10.571278 7.3448429 -1.731928 0.39215687
10.84962 8.0934677 -1.7578347 0.36862746
15.280491 12.739861 -1.8438666 0.3882353
15.947254 14.26229 -1.8867629 0.56470591
11.060266 8.9860382 -1.7708346 0.20784314
17.080856 11.196436 -0.80792642 0.54901963
18.001877 10.569989 -1.6833961 0.47058824
16.962091 10.796044 -1.4923539 0.29019609
28.410757 20.178761 -1.2887863 0.94901961
44.163307 33.993294 -1.8957158 0.92156863
16.702925 11.582959 -1.3984706 0.80784315
22.28846 16.673529 -1.8571739 0.5529412
24.187784 19.559391 -1.8885992 0.48235294
25.95743 22.620287 -1.9258733 0.6156863
54.946751 42.255123 2.4535367 1
4.0639219 2.2300153 -1.7791343 0.27450982
4.0473881 2.4581127 -1.7696072 0.29411766
3.2660892 2.8233092 -0.7292428 0.15686275
3.9289451 2.7988651 -1.758083 0.30588236
3.8553698 3.0421262 -1.7526393 0.21960784
3.4705796 2.3520446 -1.7622076 0.38039216
3.4079075 2.5542681 -1.7598169 0.40000001
3.1211236 2.8493869 -1.4299622 0.098039217
3.2819784 2.8622875 -1.7564114 0.25882354
3.2965789 3.1712666 -1.7875415 0.10588235
5.7171221 3.1141486 -1.7514479 0.3019608
4.5335727 2.7732761 -1.357381 0.22745098
4.759315 2.4797304 -1.7507256 0.29411766
4.8324785 2.8150537 -1.762817 0.26666668
3.8977785 2.7756035 -1.1842371 0.090196081
4.1041298 2.8074291 -1.5209852 0.10196079
3.7961032 2.8476851 -1.3922839 0.06666667
2.9043403 2.8562572 -0.86038309 0.05882353
3.2587988 2.8357842 -1.2069023 0.023529412
7.166944 3.9431829 -1.335705 0.60392159
4.7290659 2.8993084 -0.81793463 0.078431375
7.1556759 3.7270746 -1.7766296 0.2
4.1290398 2.9468763 -0.69351226 0.15686275
4.1167116 2.8034494 -0.95733774 0.082352944
13.100571 7.8566542 -1.72326 0.61960787
13.650036 8.7945967 -1.755718 0.51372552
14.120041 9.9788103 -1.7811224 0.47843137
14.699348 11.206594 -1.8152845 0.33725491
10.591029 7.2849107 -1.7292398 0.54509807
10.870124 8.0293322 -1.7546659 0.39607844
15.318762 12.650114 -1.8410013 0.3882353
16.015686 14.188377 -1.8869786 0.56470591
11.07304 8.9103298 -1.7655908 0.20784314
17.549997 10.519202 -0.91635036 0.79215688
17.118326 11.10603 -0.80704671 0.56078434
18.79212 10.91322 -1.7612461 0.49019608
17.009281 10.713945 -1.492031 0.29019609
28.479334 20.026297 -1.2874409 0.96078432
44.206848 33.696419 -1.8902593 0.91764706
22.345825 16.552938 -1.8552705 0.55686277
24.250034 19.421686 -1.8860685 0.48235294
26.176815 22.595631 -1.9351944 0.63137257
19.637354 11.391349 -0.21768196 0.41568628
54.471741 34.369213 -0.6722759 1
55.338974 42.143589 2.46139 1
4.0726485 2.2097776 -1.7783667 0.27843139
4.0668359 2.4439039 -1.7734036 0.23137255
3.2808065 2.8091326 -0.72964722 0.15686275
3.9389844 2.7781584 -1.7566011 0.21568628
3.8564925 3.0135374 -1.7460985 0.30588236
3.4830766 2.3366315 -1.7630544 0.41568628
3.4141378 2.5338578 -1.7565228 0.41568628
3.1456099 2.8445358 -1.4356397 0.098039217
3.2759762 2.8301885 -1.7450843 0.27450982
3.2877655 3.1327047 -1.7734505 0.10588235
5.7215276 3.0817375 -1.7480654 0.32156864
4.561307 2.7609334 -1.3623346 0.22352941
4.780921 2.4621928 -1.7547626 0.27843139
4.8407421 2.7893808 -1.7608601 0.25098041
3.9233952 2.765949 -1.1885707 0.090196081
4.2290583 2.8621671 -1.5666848 0.10588235
3.7882428 2.8138249 -1.3835462 0.074509807
2.9357557 2.8603919 -0.86662358 0.05882353
3.2706187 2.8191397 -1.2063 0.023529412
4.7678313 2.8925083 -0.82309228 0.078431375
7.1713881 3.692395 -1.7761698 0.2
4.1654382 2.9429133 -0.69809967 0.15686275
3.5714777 2.7429214 -0.55621737 0.05882353
4.1590676 2.8033414 -0.96517122 0.082352944
13.13706 7.8225002 -1.7250314 0.48627451
13.665869 8.7441559 -1.754038 0.52156866
14.143116 9.9287205 -1.779983 0.46666667
14.732826 11.159184 -1.8150755 0.34117648
10.610551 7.2493787 -1.7286462 0.34901962
10.888901 7.9904728 -1.7535162 0.39215687
15.339899 12.586879 -1.8385406 0.3882353
16.034792 14.115664 -1.883667 0.56470591
11.068394 8.8496304 -1.7597885 0.46666667
17.663694 10.511788 -0.9215287 0.6156863
17.154793 11.053278 -0.80715567 0.57254905
18.815878 10.848174 -1.7601689 0.48627451
17.064655 10.674255 -1.4942392 0.29019609
28.5126 19.916149 -1.285912 0.81176472
44.409336 33.630959 -1.8948898 0.92156863
22.370371 16.462584 -1.8527642 0.55686277
24.284348 19.324417 -1.883796 0.48235294
26.279396 22.540619 -1.9378154 0.72941178
20.007658 11.521658 -0.22491798 0.42352942
54.533669 34.169277 -0.67156857 1
4.0811377 2.1976945 -1.7791384 0.26666668
4.0760899 2.4321203 -1.774164 0.28627452
3.3120811 2.8176615 -0.73566139 0.15686275
3.9476538 2.7657382 -1.7566031 0.24313726
3.8761849 3.0094502 -1.7511911 0.24313726
3.487335 2.3236721 -1.7613685 0.36470589
3.4206548 2.5220711 -1.7557002 0.43137255
3.1628819 2.8420308 -1.4398972 0.098039217
3.3071442 2.8388216 -1.7580359 0.25490198
3.2936606 3.118573 -1.7711036 0.10588235
5.7345295 3.0655129 -1.7491964 0.34117648
4.5748677 2.749598 -1.3639866 0.28235295
4.793611 2.4495733 -1.7567812 0.28627452
4.8625212 2.7816892 -1.7660904 0.23529412
3.9526055 2.767786 -1.1956091 0.090196081
3.8396137 2.83374 -1.401031 0.06666667
2.9447758 2.8511968 -0.86662567 0.05882353
3.289609 2.817425 -1.2105424 0.023529412
4.8121772 2.8990855 -0.83030993 0.078431375
7.1742558 3.6654308 -1.7738476 0.2
7.276979 4.1888728 -1.7767514 0.078431375
4.2005701 2.9475529 -0.70334023 0.15686275
3.5723386 2.7257054 -0.55467373 0.05882353
4.1873565 2.8030798 -0.97039306 0.082352944
3.8364112 2.8189871 -0.85802454 0.047058824
13.129042 7.7620821 -1.720247 0.61960787
13.683195 8.6947708 -1.752599 0.52941179
14.144827 9.8638735 -1.7758586 0.61960787
14.758227 11.105699 -1.8137741 0.34117648
10.634866 7.2171121 -1.7289521 0.3764706
10.907539 7.9515743 -1.7523663 0.3882353
15.360792 12.523633 -1.8360798 0.38431373
16.058086 14.046904 -1.880942 0.56470591
11.089873 8.8099031 -1.7586894 0.45490196
17.793015 10.512872 -0.92769694 0.60392159
17.184374 10.996094 -0.80686635 0.57254905
18.825583 10.775204 -1.7576438 0.48627451
17.128387 10.639586 -1.4972934 0.29019609
17.421511 12.099052 -0.70246714 0.48235294
30.455936 22.89987 -1.2299104 0.67450982
16.805845 11.382977 -1.3962941 0.44705883
22.409019 16.382837 -1.8515923 0.56078434
29.876505 26.153769 -0.86650437 0.84705883
24.312025 19.222185 -1.8809848 0.48235294
26.322712 22.434675 -1.9356056 0.68627453
20.333809 11.624018 -0.23118071 0.42745098
4.0846782 2.1830213 -1.7775993 0.26666668
4.0773931 2.4155333 -1.7711309 0.29803923
3.3284051 2.813494 -0.73766744 0.15686275
3.9654648 2.7595847 -1.7610618 0.23921569
3.8885472 2.9995446 -1.7526476 0.29411766
3.4976137 2.3146584 -1.7630576 0.40784314
3.4329722 2.5146239 -1.758175 0.40392157
3.1857827 2.8443744 -1.4469917 0.098039217
3.3034749 2.8178232 -1.7507539 0.25098041
3.3061476 3.1107986 -1.7726722 0.10588235
5.7525749 3.0519056 -1.752021 0.3137255
4.7346749 2.8265567 -1.4145899 0.29411766
4.7927842 2.430203 -1.7534213 0.29803923
4.8581033 2.7588735 -1.7608639 0.24705882
4.0516605 2.8173163 -1.2264628 0.094117649
4.1961637 2.8022206 -1.5460935 0.14117648
3.8682957 2.8363905 -1.40915 0.06666667
2.9717956 2.8596485 -0.87286466 0.062745102
3.3305049 2.8339612 -1.2238711 0.023529412
8.6079826 5.179441 -1.6034075 0.078431375
7.1926608 3.6463363 -1.7757101 0.2
7.2968473 4.1698928 -1.778545 0.078431375
4.2276301 2.9464467 -0.70694375 0.15686275
3.6090322 2.7362893 -0.56023973 0.05882353
4.2173181 2.8037355 -0.97604996 0.082352944
3.8766625 2.8302336 -0.86633706 0.047058824
13.172123 7.7317648 -1.723027 0.49411765
13.696987 8.6432457 -1.7506778 0.52941179
14.1675 9.8137627 -1.774719 0.42745098
14.764367 11.037884 -1.8098509 0.34117648
10.634473 7.1682663 -1.7247604 0.53333336
10.922842 7.9103165 -1.7506382 0.38039216
15.386068 12.464132 -1.834237 0.38431373
16.093088 13.988596 -1.8797808 0.56078434
11.106537 8.7664661 -1.7567602 0.45882353
11.556622 9.7449837 -1.7943473 0.29803923
17.989777 10.552502 -0.93815494 0.52549022
17.220497 10.943131 -0.80697519 0.56470591
18.840208 10.705229 -1.7556617 0.48627451
17.195438 10.606723 -1.5006856 0.29411766
17.441322 12.031813 -0.70153242 0.51764709
30.027348 22.429688 -1.2063223 0.66274512
16.818247 11.314611 -1.3940912 0.6156863
22.415199 16.279566 -1.8474548 0.67843139
29.810852 25.93136 -0.86122471 1
24.326721 19.110149 -1.8770961 0.47843137
26.329107 22.297729 -1.9304235 0.58039218
52.152729 32.221771 -0.62995631 1
4.0963697 2.1725876 -1.7799116 0.29019609
4.089735 2.4056067 -1.7734085 0.27450982
3.352272 2.8154931 -0.74167752 0.15686275
3.9633429 2.7397747 -1.7558643 0.24313726
3.892051 2.9827523 -1.749741 0.29411766
3.5078688 2.3056042 -1.7647465 0.43137255
3.4350305 2.4995365 -1.7548794 0.42745098
3.1833973 2.824502 -1.4413198 0.098039217
3.3249161 2.818012 -1.75804 0.25490198
3.3079474 3.0928304 -1.7679762 0.10588235
5.7552977 3.0302577 -1.7497652 0.36078432
4.7550449 2.8185973 -1.418442 0.21568628
4.7969475 2.413358 -1.7520782 0.28235295
4.8765526 2.7491808 -1.7647871 0.26274511
4.0588655 2.8034675 -1.2259237 0.094117649
4.1842537 2.7755377 -1.5377284 0.16862746
3.8756533 2.8231182 -1.4085275 0.06666667
2.9766386 2.846276 -0.87142754 0.062745102
3.3525198 2.8344328 -1.2293251 0.023529412
7.1402946 3.7984369 -1.3189228 0.2
8.6461201 5.1655993 -1.6078783 0.50588238
7.191874 3.6176295 -1.772458 0.2
7.3048315 4.144063 -1.7772053 0.078431375
4.2563562 2.9463069 -0.71087474 0.15686275
3.6708629 2.7659166 -0.57075155 0.05882353
4.2276921 2.7914817 -0.97648692 0.082352944
3.8902681 2.8215592 -0.86758572 0.047058824
13.180845 7.6537209 -1.7190037 0.62352943
13.729094 8.5733271 -1.7494848 0.53725493
14.198728 9.7368326 -1.7726666 0.46666667
14.814504 10.967052 -1.8096483 0.34117648
10.668063 7.1180758 -1.7247704 0.33725491
10.955135 7.8553286 -1.749782 0.40000001
15.430547 12.380396 -1.832401 0.38039216
16.124134 13.88279 -1.8753036 0.56078434
11.136696 8.7055283 -1.754836 0.42745098
11.576603 9.6689005 -1.7898699 0.29803923
18.447432 10.703158 -0.96412849 0.48627451
17.266771 10.858673 -0.80669224 0.56470591
18.878168 10.609517 -1.7544099 0.48627451
17.295946 10.556832 -1.5057759 0.29411766
17.43177 11.904511 -0.69811326 0.58431375
29.646555 21.927813 -1.1835004 0.89803922
16.904488 11.257198 -1.3972681 0.63529414
22.465649 16.155184 -1.8451059 0.66274512
29.890163 25.754215 -0.85974663 1
24.377062 18.96488 -1.8737565 0.47843137
26.418516 22.160656 -1.9292167 0.52941179
52.066879 31.830721 -0.62620729 1
4.1064606 2.1530592 -1.7799144 0.23921569
4.0867319 2.377907 -1.7665836 0.26666668
3.373023 2.8058524 -0.74368519 0.15686275
3.9869173 2.7282801 -1.7610673 0.23921569
3.9104779 2.9677768 -1.7519264 0.3137255
3.5140626 2.2860909 -1.7622181 0.41960785
3.4453456 2.4823151 -1.7540582 0.44705883
3.2305136 2.8387372 -1.4583453 0.098039217
3.328315 2.7941606 -1.7523782 0.31764707
3.3279107 3.0823245 -1.7711123 0.10588235
5.7711568 3.0039446 -1.7503337 0.32549021
4.8216982 2.397146 -1.7574601 0.26666668
4.8762436 2.7187412 -1.7595625 0.26274511
4.0496511 2.7692235 -1.2183495 0.1254902
4.4134364 2.8948233 -1.625263 0.10980392
3.9210792 2.828361 -1.4216433 0.06666667
3.0026648 2.8444214 -0.87574899 0.062745102
3.3789997 2.8294806 -1.2347804 0.023529412
7.137207 3.7538719 -1.3146396 0.2
8.7143135 5.1510282 -1.6168191 0.54509807
7.2000833 3.5793688 -1.7701381 0.2
7.3225708 4.1086593 -1.7767633 0.078431375
4.3044343 2.9491057 -0.71775395 0.15686275
4.2084794 3.147989 -0.67399979 0.070588239
4.28339 2.7988734 -0.98780042 0.082352944
3.9161723 2.8124692 -0.87091351 0.047058824
13.209919 7.615201 -1.7197663 0.4509804
13.754239 8.5290899 -1.7492508 0.52549022
14.197969 9.6710186 -1.7683126 0.6156863
14.826438 10.903988 -1.8065988 0.34117648
10.688679 7.0834346 -1.7244763 0.3882353
10.965259 7.8105392 -1.7471864 0.38431373
15.450624 12.317068 -1.8299401 0.38039216
16.146494 13.813979 -1.8725783 0.56078434
11.1561 8.664443 -1.7534599 0.4509804
11.564356 9.5970497 -1.7824808 0.40392157
18.749506 10.799006 -0.98118651 0.72156864
17.329557 10.822386 -0.80839318 0.64313728
18.886971 10.536616 -1.7518845 0.48627451
17.374794 10.530406 -1.5103526 0.29411766
17.412823 11.811624 -0.69520247 0.58823532
29.268278 21.505533 -1.1625507 0.9137255
16.969662 11.223704 -1.400122 0.60784316
16.899162 12.058262 -1.3304776 0.5411765
30.011694 25.695356 -0.86123031 1
24.398581 18.859066 -1.8705407 0.47843137
26.449667 22.04563 -1.9261397 0.52941179
4.1230216 2.1450207 -1.7845376 0.14509805
4.1101327 2.3744667 -1.7741718 0.28627452
3.3999989 2.8100631 -0.74849695 0.15686275
3.9908063 2.7126124 -1.7588407 0.30588236
3.921253 2.9566026 -1.7526559 0.30588236
3.5242453 2.2769592 -1.7639072 0.41568628
3.4590447 2.4758153 -1.7573572 0.29411766
3.2521217 2.8394961 -1.4647306 0.098039217
3.3342576 2.7813764 -1.7507615 0.21176471
3.3376236 3.0718977 -1.7711146 0.10588235
5.7702904 2.980546 -1.7469491 0.34901962
4.8172731 2.376142 -1.7527553 0.27058825
4.8962588 2.7098312 -1.7641391 0.25490198
4.067884 2.762881 -1.2215991 0.21176471
4.312479 2.8105936 -1.5808558 0.3764706
3.9667962 2.8427961 -1.4366305 0.06666667
3.0088305 2.8323278 -0.87479156 0.062745102
3.4040318 2.8321071 -1.2414458 0.023529412
7.1245389 3.7187893 -1.3096391 0.2
8.7812653 5.1537018 -1.627131 0.49803922
7.2112694 3.5567033 -1.7701408 0.2
7.3337374 4.0846934 -1.7763189 0.078431375
4.3398371 2.952939 -0.72299463 0.15686275
4.249877 3.1586413 -0.68018442 0.070588239
4.3184223 2.8021417 -0.9947623 0.086274512
3.9439943 2.8139482 -0.87590194 0.047058824
13.774176 8.4816523 -1.7482936 0.53725493
14.21669 9.6186066 -1.7667134 0.43137255
14.847732 10.847995 -1.8048601 0.34117648
10.679437 7.0292573 -1.7187853 0.51764709
10.994547 7.7795095 -1.7480603 0.38431373
15.478252 12.259892 -1.8285089 0.38431373
16.176147 13.751616 -1.8708304 0.56078434
11.183208 8.6293449 -1.7534672 0.4509804
11.580708 9.5493784 -1.7801112 0.5411765
19.092289 10.91577 -1.0007747 0.5411765
17.371931 10.773157 -0.80889976 0.51372552
18.907707 10.470487 -1.750626 0.48627451
17.472364 10.514901 -1.5167902 0.29411766
17.405069 11.726772 -0.69289291 0.58823532
28.855421 21.062277 -1.1400918 0.83529413
16.993078 11.162691 -1.3990253 0.56862748
16.82336 11.92432 -1.320109 0.49411765
24.411753 18.747246 -1.8666517 0.47843137
26.486496 21.935722 -1.923558 0.52941179
4.1098762 2.121963 -1.7752951 0.27450982
4.1223779 2.364383 -1.7764494 0.28627452
3.4224708 2.8104377 -0.75210631 0.15686275
3.9915476 2.6948934 -1.7551286 0.19607843
3.9275424 2.9420183 -1.7512037 0.36470589
3.526752 2.2629557 -1.7613775 0.40000001
3.4594591 2.459641 -1.7532374 0.39215687
3.270925 2.8377221 -1.4696975 0.098039217
3.3443933 2.7720587 -1.7515727 0.28627452
3.349999 3.0639484 -1.7726831 0.10588235
5.7864223 2.9658394 -1.7492089 0.3137255
5.7685127 3.3410413 -1.7446108 0.06666667
4.8280396 2.3625054 -1.7541014 0.29019609
4.88656 2.6843498 -1.756952 0.26666668
4.1005297 2.7660363 -1.22972 0.11372549
4.31003 2.7898488 -1.5763526 0.32549021
4.0049458 2.8514228 -1.4484959 0.06666667
3.0346317 2.8389826 -0.88055086 0.062745102
3.4158289 2.8237851 -1.2426594 0.023529412
7.0942512 3.6748273 -1.301065 0.2
7.2188845 3.5323069 -1.7692133 0.2
4.3785954 2.9587533 -0.72889006 0.15686275
4.2045918 3.1038599 -0.66936767 0.21568628
4.3436317 2.7989502 -0.99911427 0.086274512
3.9655182 2.810715 -0.87922823 0.050980393
7.3483114 4.1792002 -0.85542315 0.16862746
13.802076 8.4093933 -1.7466183 0.52941179
14.253491 9.5460072 -1.765579 0.4627451
14.896959 10.776782 -1.8046569 0.34117648
10.717344 6.9820766 -1.7196945 0.36470589
11.01325 7.7151341 -1.7448908 0.39607844
15.51069 12.167306 -1.8252305 0.38431373
16.234606 13.670174 -1.8700677 0.56078434
11.214202 8.5693598 -1.7518193 0.44705883
11.614817 9.4860296 -1.7782753 0.54901963
19.482859 11.016592 -1.0222397 0.54509807
17.427576 10.69432 -0.8092137 0.53333336
18.927013 10.365064 -1.7475637 0.48627451
17.65468 10.512136 -1.5300012 0.29803923
17.423531 11.620293 -0.69101965 0.58431375
28.587164 20.660295 -1.1229992 0.7764706
17.033649 11.074895 -1.3979348 0.81176472
16.828808 11.809432 -1.3155295 0.52941179
24.448915 18.593575 -1.8623686 0.47843137
26.540154 21.77022 -1.9196258 0.52549022
4.1313066 2.1081238 -1.78069 0.27450982
4.1270909 2.3413072 -1.7734177 0.27843139
3.4432652 2.8003821 -0.75411397 0.15686275
4.0056939 2.6770267 -1.755875 0.27058825
3.9502842 2.930177 -1.7555705 0.3882353
3.5403888 2.2481966 -1.7630677 0.4627451
3.4740145 2.4455051 -1.7548891 0.38431373
3.298454 2.8342915 -1.4767935 0.098039217
3.3673499 2.7643521 -1.7572417 0.23921569
3.3644667 3.0481961 -1.7726871 0.10588235
5.7951365 2.9359288 -1.7475195 0.33333334
5.7608986 3.3003826 -1.7369149 0.30588236
4.8288074 2.3347259 -1.7500703 0.28627452
4.9206123 2.6730616 -1.7654516 0.29019609
4.1745076 2.7868273 -1.2502916 0.094117649
4.4719367 2.8629107 -1.636212 0.45490196
4.0198708 2.833652 -1.449124 0.06666667
3.064992 2.8407156 -0.88631171 0.062745102
3.4571943 2.8303397 -1.2541724 0.027450981
7.0957165 3.6333847 -1.2978537 0.19607843
7.237165 3.499052 -1.769683 0.2
4.417088 2.9541168 -0.733805 0.15686275
4.2097321 3.077065 -0.66751701 0.34509805
4.3748775 2.7897737 -1.0039029 0.086274512
3.9930611 2.8022645 -0.88297158 0.050980393
7.280025 4.1106172 -0.8435753 0.16862746
13.813118 8.35672 -1.7444557 0.52941179
14.26348 9.48804 -1.7628319 0.63529414
14.901667 10.709072 -1.8007334 0.34117648
10.734196 6.9451647 -1.7188008 0.3764706
11.034158 7.6782565 -1.7443191 0.38431373
15.55189 12.121001 -1.825653 0.3882353
16.250002 13.596145 -1.8665599 0.56078434
11.23153 8.5269308 -1.7501664 0.43529412
11.63839 9.4445696 -1.7772264 0.5529412
19.853842 11.143243 -1.0434783 0.61960787
17.472992 10.646808 -0.8099193 0.43137255
18.936651 10.293232 -1.745219 0.48627451
17.872156 10.566325 -1.5482814 0.3019608
17.42827 11.544581 -0.68939704 0.60000002
28.452496 20.427011 -1.113739 0.81176472
17.041439 11.004097 -1.3954155 0.51764709
16.738543 11.667477 -1.303974 1
24.489658 18.503555 -1.8609033 0.47843137
26.490908 21.590918 -1.910231 0.52549022
4.1345305 2.093365 -1.7791506 0.29019609
4.1296287 2.3256214 -1.7711433 0.27450982
3.4596684 2.7956362 -0.75612003 0.15686275
4.0202551 2.668458 -1.758848 0.26274511
3.9534845 2.9133024 -1.7526639 0.30980393
3.550472 2.2389491 -1.7647567 0.37254903
3.4861591 2.4377956 -1.7573638 0.39215687
3.3173056 2.8322947 -1.4817603 0.098039217
3.3660595 2.7457404 -1.7515782 0.25490198
3.3699985 3.0339279 -1.7703401 0.10588235
5.8197312 2.9253538 -1.7526016 0.29019609
5.7911992 3.2937593 -1.7435175 0.26274511
4.8411603 2.3218281 -1.7520889 0.27450982
4.9239783 2.654865 -1.7634927 0.28627452
4.3845539 2.7887154 -1.5975974 0.52549022
4.0117188 2.8089566 -1.4422578 0.21568628
3.0725303 2.8297882 -0.88583398 0.062745102
3.4868279 2.8361154 -1.2626553 0.027450981
7.0860395 3.6004782 -1.2935679 0.19607843
7.2006836 3.4537549 -1.7571312 0.21960784
4.4593077 2.9616067 -0.74035525 0.15686275
4.2765584 3.106138 -0.67864752 0.27058825
4.4133739 2.7945292 -1.0117348 0.086274512
4.0337586 2.8123243 -0.89128429 0.050980393
7.3032475 4.0934391 -0.84509128 0.16862746
13.835868 8.3112192 -1.7439804 0.52941179
14.289831 9.4409981 -1.7623805 0.43137255
14.923861 10.654139 -1.7992131 0.34117648
10.730952 6.8954449 -1.7143087 0.52156866
11.054948 7.6413178 -1.743747 0.43137255
15.572516 12.058768 -1.8233974 0.38039216
16.262045 13.5196 -1.8626609 0.55686277
11.247123 8.483283 -1.7482369 0.44313726
11.661819 9.4030495 -1.7761775 0.54901963
20.224073 11.266696 -1.0646073 0.74901962
18.935507 10.215783 -1.741788 0.48235294
17.992523 10.561668 -1.5569183 0.69411767
17.442736 11.475522 -0.68828982 0.60392159
28.52454 20.343344 -1.1141337 1
16.996868 10.900161 -1.3879972 0.50588238
16.714575 11.572814 -1.2984978 0.99215686
24.499729 18.390759 -1.8568789 0.47450981
26.423767 21.398308 -1.8994735 0.52156866
60.03894 32.27676 -1.069447 1
59.164234 34.783615 -0.73029292 1
4.1410217 2.0802281 -1.7791519 0.24705882
4.1288958 2.3081136 -1.7673515 0.30588236
3.488354 2.8005307 -0.76133269 0.15686275
4.020802 2.6507308 -1.7551358 0.31764707
3.9670975 2.9041872 -1.7548475 0.36862746
3.5528278 2.2249129 -1.7622269 0.35686275
3.4863954 2.4216185 -1.7532437 0.39215687
3.3476503 2.8397789 -1.492401 0.098039217
3.3846521 2.7431653 -1.7572457 0.25490198
3.3781972 3.022131 -1.7695591 0.10588235
5.8151093 2.9002533 -1.7480879 0.19215687
5.7964973 3.2727084 -1.7418697 0.28627452
4.8483634 2.3064897 -1.7520903 0.28235295
4.920639 2.6330833 -1.7589196 0.3019608
4.0174141 2.7941728 -1.441011 0.18431373
3.0942371 2.8320837 -0.890154 0.062745102
3.5046198 2.832243 -1.2662917 0.027450981
7.2132339 3.431916 -1.7575989 0.22352941
4.4983082 2.9667196 -0.74625081 0.15686275
4.3181553 3.1161289 -0.68483222 0.29411766
4.4469686 2.7959888 -1.0182618 0.086274512
4.0489817 2.8041737 -0.89294845 0.050980393
7.2754502 4.0331731 -0.83828884 0.98039216
13.864591 8.2398148 -1.7425458 0.53333336
14.329062 9.370307 -1.761705 0.45882353
14.965681 10.577994 -1.7981356 0.35294119
10.763258 6.8447986 -1.7143184 0.37254903
11.076122 7.5790944 -1.7411556 0.41568628
15.617996 11.976872 -1.8219726 0.3882353
16.307093 13.427692 -1.8603336 0.55686277
11.278938 8.424283 -1.7468653 0.44705883
11.687428 9.3332396 -1.7730204 0.53725493
17.713549 10.603789 -0.81909966 0.32549021
18.98156 10.125483 -1.7416215 0.48235294
17.476498 11.380152 -0.68727511 0.60392159
28.582441 20.18222 -1.1124279 1
16.993982 10.785907 -1.3829552 0.9254902
16.736023 11.471419 -1.2955487 0.53725493
55.479088 42.264812 -2.0217459 1
24.552422 18.250288 -1.8540766 0.47450981
26.55687 21.299854 -1.9021052 0.87843138
59.272099 34.472332 -0.72946942 1
4.1423678 2.0564675 -1.7753029 0.26666668
4.1381359 2.287797 -1.7665957 0.21960784
3.5214899 2.7997391 -0.76654685 0.15686275
4.0363116 2.6337118 -1.7566248 0.29411766
3.9807217 2.8854582 -1.7548512 0.34901962
3.5585794 2.2052872 -1.7596986 0.39607844
3.4888589 2.3989651 -1.7483007 0.31764707
3.3796382 2.8393981 -1.5016249 0.098039217
3.3846574 2.7169785 -1.749965 0.27843139
3.3911002 3.0050151 -1.76878 0.10588235
5.8493185 2.8828447 -1.7548653 0.3019608
5.8017941 3.2397201 -1.7385739 0.27843139
4.857367 2.2826564 -1.751421 0.28235295
4.9262819 2.606282 -1.7563088 0.24705882
4.3164082 2.8124101 -1.2876467 0.098039217
4.0476451 2.7871802 -1.4478827 0.090196081
3.1176045 2.8267615 -0.89351606 0.062745102
3.5298305 2.8251009 -1.2711415 0.027450981
7.2169509 3.3921063 -1.7543485 0.21960784
4.5453215 2.9665542 -0.75280285 0.15686275
4.3472185 3.1063132 -0.68761832 0.33725491
4.0573559 2.7817771 -0.89170539 0.050980393
7.281065 4.0064554 -0.83728319 1
13.88183 8.1911545 -1.7413473 0.5411765
14.333356 9.3090878 -1.7582687 0.63137257
14.967913 10.509244 -1.7939932 0.34901962
10.782989 6.8098984 -1.7140239 0.38431373
11.101476 7.5453987 -1.7414508 0.42745098
15.650715 11.924189 -1.821365 0.39607844
16.329159 13.360044 -1.857803 0.55686277
11.297325 8.3829288 -1.745489 0.45490196
11.719742 9.2990246 -1.7735565 0.56470591
21.020542 11.493107 -1.1090728 0.47058824
17.830809 10.59818 -0.82398528 0.60392159
19.007914 10.063002 -1.7410866 0.48235294
20.120472 11.604943 -1.7581016 0.41568628
17.500402 11.317619 -0.68668324 0.6156863
17.000679 10.715524 -1.3804355 0.60392159
16.604292 11.304185 -1.2804341 1
55.421932 41.947174 -2.0141778 1
24.574265 18.147135 -1.8511294 0.47450981
26.632944 21.223829 -1.902867 0.74901962
4.1537399 2.0457029 -1.7776152 0.26274511
4.1566133 2.2811413 -1.7719078 0.27058825
3.5441337 2.799473 -0.7701562 0.15686275
4.0492187 2.6239798 -1.758855 0.25490198
3.9897547 2.872937 -1.7548532 0.34901962
3.5654521 2.1940742 -1.7597001 0.36078432
3.5083671 2.3963616 -1.7548971 0.41960785
3.4563279 2.8844502 -1.5349621 0.098039217
3.0810552 2.8130903 -1.3528991 0.090196081
3.413265 2.7221906 -1.7612978 0.25490198
3.4005673 2.9943936 -1.7687823 0.10588235
5.8479595 2.8594284 -1.7514805 0.32549021
5.8186264 3.2252438 -1.7407763 0.24705882
4.8644462 2.2672687 -1.7514224 0.29019609
4.9494162 2.5987287 -1.7621925 0.28235295
4.2943845 2.7791529 -1.2773646 0.29019609
3.9310372 2.8085363 -1.132318 0.074509807
4.4550552 2.7645998 -1.6136951 0.13725491
4.0844498 2.7939196 -1.4591237 0.10588235
3.1436851 2.8327556 -0.89927542 0.062745102
3.5506384 2.8233733 -1.2759898 0.027450981
7.2346082 3.3726497 -1.7562109 0.21960784
4.5911441 2.9753897 -0.76000798 0.15686275
4.4001942 3.1239223 -0.69596702 0.29411766
4.0998421 2.7923942 -0.90043366 0.050980393
13.904037 8.1454735 -1.7408718 0.53333336
14.360791 9.2629337 -1.7580469 0.43529412
14.982882 10.449675 -1.7915989 0.36078432
10.779147 6.7603006 -1.7095319 0.52941179
11.121823 7.5082831 -1.7408788 0.41568628
15.673748 11.864228 -1.8195211 0.53725493
16.372538 13.309974 -1.8580099 0.55686277
11.307588 8.3356848 -1.7427294 0.44705883
11.731809 9.2487106 -1.7706583 0.53333336
31.258581 16.937057 -1.747751 0.64313728
18.010082 10.628536 -0.83245403 0.52549022
20.136038 11.529809 -1.756081 0.41568628
17.530821 11.259353 -0.68643498 0.61960787
16.624834 11.241942 -1.2791089 1
30.527811 22.980808 -1.013266 0.627451
24.600538 18.047544 -1.8485858 0.47450981
26.630663 21.085556 -1.8974351 0.88627452
4.1600828 2.0325046 -1.7776164 0.27450982
4.1556902 2.2636375 -1.7681159 0.33333334
3.5714555 2.8026836 -0.77496809 0.15686275
4.0511374 2.60724 -1.7558857 0.29803923
3.9957323 2.8582029 -1.7534008 0.32549021
3.5738416 2.1837699 -1.760545 0.34509805
3.5174053 2.3864095 -1.755723 0.40392157
3.7981284 3.1451399 -1.6980931 0.098039217
3.1092019 2.82127 -1.3625051 0.090196081
3.4074149 2.7001932 -1.7532063 0.25882354
3.4141262 2.9874113 -1.7711335 0.10588235
5.8516936 2.8385291 -1.749789 0.30980393
5.8102517 3.1967001 -1.7347283 0.27843139
4.8680491 2.2503047 -1.750079 0.29803923
4.9441624 2.5761158 -1.7569659 0.28235295
4.3907776 2.8212154 -1.3065951 0.27843139
3.9742713 2.8210149 -1.1437166 0.078431375
4.4846807 2.7632115 -1.622064 0.19215687
4.1588526 2.8262663 -1.4853503 0.18431373
3.1483107 2.8189828 -0.89783812 0.062745102
3.5819867 2.8297269 -1.2850782 0.027450981
7.2416096 3.3482573 -1.7552832 0.21960784
7.4254026 3.8946652 -1.7741065 0.078431375
4.6087174 2.9660926 -0.76164716 0.15686275
4.440495 3.1320229 -0.70184261 0.36470589
4.1198821 2.7872839 -0.90334439 0.050980393
13.931916 8.0738544 -1.7394369 0.51764709
14.397475 9.1908932 -1.7571415 0.45882353
15.04327 10.386889 -1.7931429 0.58039218
10.812497 6.7104588 -1.7098411 0.34509805
11.134057 7.440393 -1.7368417 0.40000001
15.708674 11.774834 -1.8168603 0.54901963
16.407154 13.210246 -1.8545089 0.55686277
11.345052 8.2811289 -1.7424642 0.45882353
11.776758 9.1946592 -1.7709353 0.5411765
31.301056 16.769876 -1.7454654 0.54509807
18.273643 10.668625 -0.8448109 0.65490198
20.155415 11.415178 -1.7527136 0.40784314
17.576921 11.172341 -0.68610716 0.62352943
18.100677 12.469172 -0.62086409 0.55686277
17.1486 10.621266 -1.3864651 0.55686277
16.672569 11.160216 -1.27868 1
30.201208 22.513697 -0.99597889 0.61960787
24.635189 17.895262 -1.8444364 0.47450981
26.776701 20.996841 -1.9011812 0.86666667
60.202999 32.219772 1.3214206 1
4.164506 2.010314 -1.7753079 0.29019609
4.1582284 2.2396572 -1.7643254 0.23137255
3.5938983 2.7929444 -0.77737653 0.15686275
4.0601792 2.5860987 -1.7544032 0.26274511
4.0242805 2.8501761 -1.7606765 0.33333334
3.5855927 2.167793 -1.7613915 0.3882353
3.5286543 2.3698778 -1.755726 0.44313726
3.9638979 3.2492619 -1.7718599 0.098039217
3.1377285 2.8205943 -1.3700546 0.094117649
3.4330957 2.6942091 -1.7604939 0.24705882
3.4323738 2.9750094 -1.7734866 0.10588235
5.8718734 2.8141587 -1.7520506 0.3019608
5.8538294 3.1850247 -1.744083 0.29019609
4.8785005 2.2271607 -1.7500819 0.28627452
4.9662414 2.557981 -1.7608904 0.29019609
4.3876777 2.7902341 -1.301186 0.47450981
3.9985185 2.8101587 -1.1473463 0.078431375
4.7036686 2.8651474 -1.7038071 0.13725491
4.2301369 2.8461885 -1.5084566 0.14117648
3.1789222 2.8198035 -0.90359896 0.062745102
3.601258 2.8174367 -1.2875049 0.027450981
7.2484155 3.3100479 -1.7529629 0.22352941
7.4350328 3.8551369 -1.7718735 0.078431375
4.6609802 2.9681675 -0.76918155 0.21176471
4.4826164 3.1306133 -0.70710188 0.40784314
7.2999673 3.9129701 -0.8337642 0.35294119
14.404387 9.1318493 -1.7541641 0.62352943
15.072475 10.337352 -1.7927146 0.44313726
10.840215 6.6805825 -1.7110459 0.37254903
11.157342 7.4053993 -1.7368476 0.40000001
15.72158 11.707705 -1.8137805 0.56078434
16.434559 13.147482 -1.8527603 0.55686277
11.359714 8.2373381 -1.7405343 0.4627451
11.793065 9.1479568 -1.7688293 0.56078434
31.29888 16.642517 -1.7420694 0.54509807
18.548771 10.751628 -0.8587541 0.58431375
7.8176751 4.0576782 -0.58581561 0.18431373
20.163363 11.336196 -1.7500161 0.41568628
17.608543 11.114946 -0.68594468 0.627451
17.960327 12.289116 -0.61265182 0.86666667
17.268517 10.620288 -1.3945339 0.92941177
16.690924 11.096778 -1.2772065 1
29.770309 22.048355 -0.97605765 0.80000001
24.668587 17.80155 -1.842566 0.47450981
4.1841297 2.0033255 -1.7814717 0.25490198
4.1749978 2.2319305 -1.7688789 0.25882354
3.6213102 2.7958539 -0.78218842 0.15686275
4.076118 2.5782006 -1.758119 0.29411766
4.0271339 2.8332007 -1.7577697 0.29411766
3.5970235 2.1592541 -1.7639241 0.42352942
3.5285769 2.3537104 -1.7516059 0.35294119
3.9827754 3.2437828 -1.7761179 0.24705882
3.1577055 2.8208721 -1.3755448 0.094117649
3.4241738 2.670032 -1.7507834 0.28627452
3.438978 2.961833 -1.7719227 0.10588235
5.8841147 2.7972987 -1.7531813 0.29803923
5.835135 3.151001 -1.7347348 0.3137255
4.8819652 2.2101815 -1.7487388 0.28627452
4.977572 2.5440772 -1.7621992 0.26666668
4.4176073 2.7896278 -1.3082244 0.21176471
4.034081 2.8165812 -1.1561546 0.078431375
4.8394065 2.9255586 -1.7540116 0.14117648
3.1979265 2.818929 -0.90695953 0.062745102
3.6206334 2.8141937 -1.2917473 0.027450981
7.2587543 3.2872326 -1.7529652 0.21960784
7.4470992 3.8317745 -1.7718763 0.078431375
4.7322016 2.9918084 -0.78129798 0.26666668
4.5279427 3.1416297 -0.71390492 0.3882353
4.6764579 2.8168023 -1.0643852 0.090196081
7.1893902 3.8253663 -0.81611627 0.35686275
55.630501 39.863522 0.46651357 1
14.43293 9.0865488 -1.7541715 0.42745098
15.075285 10.26982 -1.7887903 0.57254905
9.9465837 6.0898552 -1.5485377 0.3882353
11.167333 7.3616004 -1.7345407 0.39607844
15.737414 11.64297 -1.8111126 0.56470591
16.460178 13.083435 -1.8508161 0.5529412
11.382256 8.199297 -1.7399879 0.4627451
11.815448 9.1060915 -1.7677801 0.5529412
31.280304 16.506971 -1.7376831 0.5411765
18.819405 10.830012 -0.87239879 0.5529412
7.8711038 4.053781 -0.58998215 0.1882353
20.179682 11.262135 -1.7481642 0.41568628
17.646753 11.061699 -0.68612564 0.63921571
17.277861 10.55149 -1.3923301 0.75686276
16.710699 11.034434 -1.2758812 1
29.372232 21.611948 -0.95754176 0.6901961
16.92832 12.157841 -1.1958092 0.32941177
26.822832 20.762276 -1.8945282 0.63529414
4.1802816 1.9853826 -1.7768511 0.29803923
4.1868806 2.2214861 -1.7711564 0.27058825
3.6425316 2.7938957 -0.78539699 0.15686275
4.0888925 2.5682762 -1.7603492 0.30980393
4.034482 2.8194594 -1.7570446 0.3137255
3.5959439 2.1433442 -1.7597069 0.41568628
3.539 2.3446994 -1.7532561 0.40392157
3.9739206 3.2160842 -1.7668998 0.27843139
3.1777146 2.8210518 -1.3810349 0.094117649
3.4441502 2.6681664 -1.7572601 0.24705882
3.4469202 2.9498527 -1.7711416 0.10588235
5.8910985 2.7779627 -1.7526188 0.29803923
5.8686242 3.1454663 -1.7424374 0.25882354
4.887095 2.1939573 -1.7480676 0.3019608
4.9687099 2.5198045 -1.7556654 0.28627452
4.4688392 2.8020122 -1.3222996 0.32941177
4.0523753 2.8105979 -1.1592647 0.078431375
4.8468647 2.9092906 -1.7533699 0.14901961
4.2731161 2.8365269 -1.5184509 0.39215687
3.2386951 2.8373535 -0.91751671 0.06666667
3.653657 2.8212333 -1.3014417 0.027450981
7.2583623 3.2596483 -1.7501776 0.22352941
7.4106059 3.7834074 -1.7593458 0.10196079
4.8204098 3.0253601 -0.79668874 0.3137255
4.5814619 3.1580565 -0.72225368 0.42745098
4.2347107 2.7985547 -0.92496002 0.050980393
7.3017769 4.1302199 -0.8024646 0.14117648
55.812263 39.729065 0.46674594 1
14.447857 9.0327644 -1.7523422 0.44705883
15.115613 10.227995 -1.7898912 0.4509804
9.9064589 6.0228076 -1.538048 0.65098041
11.192025 7.3275847 -1.7348356 0.40000001
15.757812 11.581766 -1.8090626 0.56078434
16.491796 13.024289 -1.8496538 0.5529412
11.396613 8.1554546 -1.7380577 0.4627451
11.836123 9.0629635 -1.7664666 0.56078434
31.282434 16.382778 -1.7346165 0.5411765
19.140972 10.935575 -0.88893014 0.6901961
7.929915 4.0522747 -0.59469181 0.1882353
20.197483 11.189042 -1.7464815 0.41176471
17.703474 11.019905 -0.68725187 0.53333336
17.368879 10.532076 -1.3977122 0.7019608
16.73358 10.97426 -1.2748523 1
28.98625 21.188843 -0.93960047 0.66274512
16.839464 12.014567 -1.1853137 0.32549021
26.864166 20.659681 -1.8926879 0.52156866
4.1931524 1.9751793 -1.7799335 0.25490198
4.185708 2.2040024 -1.7673644 0.27843139
3.6684716 2.7953572 -0.78980809 0.15686275
4.0953231 2.5544124 -1.7596083 0.30980393
4.0463572 2.8089061 -1.7585008 0.31764707
